ply
format ascii 1.0
element vertex 1140
property float x
property float y
property float z
property uchar red
property uchar green
property uchar blue
end_header
0.164642 -2.380100 -17.231800 115 62 80
0.093327 -2.380100 -17.118400 121 63 77
0.077945 -2.456040 -16.966600 115 68 78
0.088705 -2.475890 -16.966600 146 121 114
0.088705 -2.456040 -16.993800 133 86 96
0.168824 -2.531980 -17.042500 156 123 130
0.110858 -2.456040 -17.042500 145 124 131
0.164642 -2.526410 -17.042500 163 130 137
0.122656 -2.531980 -16.966600 95 51 66
0.164642 -2.531980 -17.036200 165 122 132
0.066769 -2.380100 -17.042500 133 101 116
0.088705 -2.422280 -17.042500 119 71 83
0.088705 -2.380100 -17.108100 108 50 64
0.037778 -2.304170 -17.042500 116 74 98
0.049449 -2.380100 -16.966600 140 111 115
0.027448 -2.304170 -16.966600 142 99 119
0.227425 -2.835720 -16.890600 172 137 141
0.240579 -2.864990 -16.890600 117 59 83
0.240579 -2.835720 -16.905900 111 78 87
0.185811 -2.759790 -16.890600 111 78 99
0.240579 -2.759790 -16.959300 120 80 81
0.168228 -2.835720 -16.814700 125 74 89
0.129627 -2.759790 -16.814700 143 108 104
0.164642 -2.826990 -16.814700 118 67 86
0.164642 -2.759790 -16.861000 142 115 132
0.073091 -2.607910 -16.814700 126 93 114
0.088705 -2.649730 -16.814700 108 66 76
0.088705 -2.607910 -16.840900 110 67 77
0.145509 -2.683850 -16.890600 110 60 61
0.164642 -2.719980 -16.890600 150 121 125
0.164642 -2.683850 -16.917700 130 96 97
0.116792 -2.607910 -16.890600 113 82 80
0.100566 -2.683850 -16.814700 159 127 138
0.071269 -2.759790 -16.738700 145 108 115
0.088705 -2.806530 -16.738700 107 66 72
0.088705 -2.759790 -16.761100 115 68 88
0.029417 -2.835720 -16.662800 109 66 86
0.088705 -2.835720 -16.728300 128 106 109
0.013601 -2.759790 -16.662800 121 62 82
0.099172 -2.835720 -16.738700 146 124 127
0.164642 -2.835720 -16.810100 125 74 89
0.051278 -2.683850 -16.738700 107 64 74
0.088705 -2.683850 -16.795500 137 105 116
0.026163 -2.607910 -16.738700 149 111 110
-0.007257 -2.683850 -16.662800 152 116 116
0.012768 -2.755930 -16.662800 121 62 82
0.012768 -2.683850 -16.688500 148 108 132
-0.035282 -2.607910 -16.662800 115 72 102
0.012768 -2.607910 -16.721200 135 89 92
-0.076141 -2.456040 -16.662800 161 123 120
-0.063169 -2.513130 -16.662800 115 63 86
-0.063169 -2.456040 -16.676800 146 129 122
-0.073626 -2.304170 -16.738700 165 123 133
-0.063169 -2.320810 -16.738700 124 60 86
-0.063169 -2.304170 -16.752500 119 77 87
-0.101588 -2.380100 -16.662800 112 52 78
-0.063169 -2.380100 -16.704400 115 57 82
-0.141032 -2.304170 -16.662800 124 63 78
-0.139105 -2.307220 -16.662800 124 63 78
-0.139105 -2.304170 -16.664900 124 63 78
0.083229 -2.531980 -16.890600 144 117 132
0.088705 -2.544550 -16.890600 140 113 128
0.088705 -2.531980 -16.901500 140 113 128
0.054258 -2.456040 -16.890600 117 62 91
0.046841 -2.531980 -16.814700 118 69 75
0.030582 -2.456040 -16.814700 176 143 128
0.031064 -2.380100 -16.890600 119 63 74
0.005043 -2.304170 -16.890600 149 116 111
0.012768 -2.324380 -16.890600 164 121 151
0.012768 -2.304170 -16.911800 145 123 135
0.007312 -2.380100 -16.814700 121 93 107
0.012768 -2.394830 -16.814700 111 51 87
0.012768 -2.380100 -16.831000 115 59 98
-0.026120 -2.304170 -16.814700 114 61 79
0.002209 -2.531980 -16.738700 121 90 95
0.012768 -2.568530 -16.738700 117 54 83
0.012768 -2.531980 -16.754300 103 64 83
-0.011171 -2.456040 -16.738700 124 61 88
0.012768 -2.456040 -16.777700 111 60 67
-0.058492 -2.531980 -16.662800 113 61 84
-0.034730 -2.380100 -16.738700 135 110 106
0.492183 -2.759790 -17.194400 173 121 143
0.544326 -2.801580 -17.194400 92 43 46
0.544326 -2.759790 -17.239000 94 71 79
0.516642 -2.835720 -17.118400 120 73 89
0.544326 -2.851070 -17.118400 119 80 83
0.544326 -2.835720 -17.143300 126 80 82
0.400455 -2.759790 -17.118400 142 115 124
0.468390 -2.809600 -17.118400 169 139 137
0.468390 -2.759790 -17.175300 115 76 79
0.354409 -2.607910 -17.194400 149 99 126
0.392453 -2.652890 -17.194400 134 95 96
0.392453 -2.607910 -17.228200 123 77 87
0.334732 -2.683850 -17.118400 122 74 96
0.392453 -2.751710 -17.118400 142 115 124
0.392453 -2.683850 -17.171500 151 123 119
0.281309 -2.607910 -17.118400 122 72 84
0.316516 -2.658000 -17.118400 171 133 146
0.316516 -2.607910 -17.156400 128 87 91
0.418307 -2.683850 -17.194400 141 118 124
0.468390 -2.738640 -17.194400 127 83 84
0.468390 -2.683850 -17.237400 118 69 91
0.318982 -2.759790 -17.042500 121 66 71
0.392453 -2.833040 -17.042500 127 70 87
0.392453 -2.759790 -17.111100 142 115 124
0.300662 -2.835720 -16.966600 129 82 88
0.316516 -2.856560 -16.966600 143 113 125
0.316516 -2.835720 -16.981500 151 130 125
0.392453 -2.835720 -17.040400 127 70 87
0.246711 -2.759790 -16.966600 152 112 113
0.316516 -2.759790 -17.040100 121 66 71
0.395562 -2.835720 -17.042500 127 70 87
0.468390 -2.881620 -17.042500 130 80 109
0.468390 -2.835720 -17.088000 147 123 119
0.544326 -2.902740 -17.042500 121 91 91
0.263647 -2.683850 -17.042500 123 64 70
0.316516 -2.756750 -17.042500 120 65 70
0.316516 -2.683850 -17.099400 123 86 103
0.601574 -2.835720 -17.194400 112 71 75
0.620263 -2.847370 -17.194400 116 73 80
0.620263 -2.835720 -17.213400 146 111 115
0.678070 -2.835720 -17.270300 118 67 74
0.696200 -2.889820 -17.194400 146 114 115
0.620263 -2.791020 -17.270300 151 108 117
0.620263 -2.883690 -17.118400 115 66 72
0.696200 -2.908590 -17.118400 146 114 119
0.736729 -2.911660 -17.194400 131 100 108
0.620263 -2.910530 -17.042500 159 116 123
0.292385 -2.531980 -17.194400 138 91 109
0.316516 -2.559520 -17.194400 115 70 73
0.316516 -2.531980 -17.218500 117 67 78
0.065701 -2.228230 -17.194400 105 60 91
0.088705 -2.228230 -17.235600 104 58 61
0.060598 -2.152290 -17.194400 148 123 118
0.088705 -2.152290 -17.242200 122 84 107
0.034392 -2.228230 -17.118400 145 128 120
0.026277 -2.152290 -17.118400 124 59 79
0.073272 -2.076350 -17.194400 93 53 62
0.088705 -2.076350 -17.219400 129 89 97
0.088705 -2.023400 -17.194400 77 45 56
0.031909 -2.076350 -17.118400 99 67 80
0.053478 -2.000420 -17.118400 56 43 52
0.088705 -2.000420 -17.181500 53 31 43
0.096744 -2.000420 -17.194400 52 31 40
0.013984 -2.228230 -17.042500 135 93 94
-0.004432 -2.152290 -17.042500 107 64 84
0.012768 -2.224230 -17.042500 135 93 94
0.012768 -2.152290 -17.085000 115 61 87
-0.001659 -2.228230 -16.966600 122 71 86
0.012768 -2.262920 -16.966600 152 132 123
0.012768 -2.228230 -17.036100 144 119 114
-0.031878 -2.152290 -16.966600 126 84 86
-0.007876 -2.076350 -17.042500 67 39 35
0.012768 -2.076350 -17.081100 143 109 107
0.010772 -2.000420 -17.042500 55 52 47
0.012768 -2.000420 -17.045600 55 52 47
-0.046249 -2.076350 -16.966600 92 91 71
-0.037180 -2.000420 -16.966600 98 80 66
0.088705 -1.927970 -17.118400 47 48 42
0.132266 -1.924480 -17.194400 40 38 25
0.164642 -1.924480 -17.244400 46 37 40
0.164642 -1.878030 -17.194400 42 46 47
0.190147 -1.848540 -17.194400 47 48 43
0.240579 -1.848540 -17.262700 35 35 33
0.090979 -1.924480 -17.118400 47 48 42
0.145978 -1.848540 -17.118400 31 37 33
0.164642 -1.848540 -17.152600 41 42 37
0.240579 -1.788280 -17.194400 42 42 42
0.164642 -1.824120 -17.118400 45 46 41
0.201783 -1.772610 -17.118400 33 33 31
0.240579 -1.772610 -17.177600 41 41 41
0.240579 -1.704130 -17.118400 30 30 28
0.012768 -1.995400 -17.042500 50 47 42
0.051148 -1.924480 -17.042500 37 35 36
0.088705 -1.924480 -17.114100 47 48 42
0.088705 -1.871430 -17.042500 40 35 42
0.003056 -1.924480 -16.966600 69 58 56
0.012768 -1.924480 -16.980200 65 54 52
0.012768 -1.911240 -16.966600 65 54 52
0.062935 -1.848540 -16.966600 43 37 37
0.088705 -1.848540 -17.008800 38 33 39
0.107270 -1.848540 -17.042500 40 35 42
0.088705 -1.816210 -16.966600 30 36 36
0.160679 -1.772610 -17.042500 42 33 34
0.164642 -1.772610 -17.050300 33 33 31
0.164642 -1.765420 -17.042500 33 33 31
0.198197 -1.696670 -17.042500 23 23 21
0.240579 -1.696670 -17.112900 30 30 28
0.119132 -1.772610 -16.966600 33 32 30
0.154627 -1.696670 -16.966600 35 36 31
0.164642 -1.696670 -16.984800 31 33 30
-0.063379 -2.152290 -16.890600 99 77 63
-0.063169 -2.152740 -16.890600 99 77 63
-0.063169 -2.152290 -16.891000 99 77 63
-0.066518 -2.228230 -16.814700 108 66 68
-0.063169 -2.233730 -16.814700 138 96 98
-0.063169 -2.228230 -16.820800 138 96 98
-0.105854 -2.152290 -16.814700 137 114 83
-0.087318 -2.076350 -16.890600 143 116 86
-0.063169 -2.076350 -16.932700 120 107 88
-0.086602 -2.000420 -16.890600 125 106 76
-0.063169 -2.000420 -16.924700 110 92 70
-0.131185 -2.076350 -16.814700 142 124 84
-0.137059 -2.000420 -16.814700 146 121 90
-0.215777 -2.152290 -16.662800 154 130 94
-0.215043 -2.154160 -16.662800 154 130 94
-0.215043 -2.152290 -16.663700 154 130 94
-0.121650 -2.228230 -16.738700 126 102 78
-0.156831 -2.152290 -16.738700 148 129 89
-0.139105 -2.193200 -16.738700 149 118 89
-0.139105 -2.152290 -16.762500 151 127 91
-0.184124 -2.228230 -16.662800 147 121 96
-0.139105 -2.228230 -16.718000 137 116 87
-0.232702 -2.076350 -16.662800 156 133 91
-0.215043 -2.076350 -16.687000 154 131 90
-0.230629 -2.000420 -16.662800 157 134 92
-0.215043 -2.000420 -16.689900 154 133 90
-0.179408 -2.076350 -16.738700 152 128 90
-0.139105 -2.076350 -16.801200 148 126 89
-0.186379 -2.000420 -16.738700 150 127 95
-0.139105 -2.000420 -16.811500 146 121 90
-0.027508 -2.228230 -16.890600 125 77 89
-0.063169 -1.936690 -16.890600 118 97 70
-0.118293 -1.924480 -16.814700 136 115 84
-0.063169 -1.924480 -16.881100 119 98 71
-0.079824 -1.848540 -16.814700 133 113 80
-0.063169 -1.848540 -16.832100 127 104 73
-0.063169 -1.820550 -16.814700 133 107 80
-0.215043 -1.936770 -16.662800 155 134 89
-0.171158 -1.924480 -16.738700 146 122 84
-0.139105 -1.924480 -16.786000 144 121 87
-0.139105 -1.854160 -16.738700 147 124 90
-0.136317 -1.848540 -16.738700 147 124 90
-0.210677 -1.924480 -16.662800 155 134 89
-0.177828 -1.848540 -16.662800 152 129 98
-0.139105 -1.848540 -16.734100 147 124 90
-0.097651 -1.772610 -16.738700 142 117 86
-0.063169 -1.772610 -16.782900 129 105 77
-0.063374 -1.696670 -16.738700 134 111 77
-0.063169 -1.696670 -16.739000 134 111 77
-0.142759 -1.772610 -16.662800 150 125 95
-0.139105 -1.772610 -16.669700 150 125 95
-0.139105 -1.764080 -16.662800 150 125 95
-0.113266 -1.696670 -16.662800 151 129 88
-0.055320 -1.924480 -16.890600 116 93 75
-0.004162 -1.848540 -16.890600 94 71 55
0.012768 -1.848540 -16.907500 87 64 48
0.012768 -1.823980 -16.890600 81 63 53
0.049546 -1.772610 -16.890600 44 41 34
0.088705 -1.772610 -16.927500 40 41 36
0.088705 -1.705240 -16.890600 71 61 52
-0.035434 -1.772610 -16.814700 110 88 74
0.012768 -1.772610 -16.860000 68 60 49
0.008099 -1.696670 -16.814700 88 69 55
0.012768 -1.696670 -16.819000 86 66 57
0.088705 -1.696670 -16.886800 86 70 57
0.092642 -1.696670 -16.890600 86 70 57
0.252682 -1.772610 -17.194400 38 38 38
0.302950 -1.696670 -17.194400 33 33 33
0.316516 -1.696670 -17.209700 40 40 40
0.244246 -1.696670 -17.118400 30 30 28
-0.082811 -2.835720 -16.510900 143 107 133
-0.063169 -2.901930 -16.510900 112 59 69
-0.063169 -2.835720 -16.538100 136 89 109
-0.096018 -2.759790 -16.510900 115 61 74
-0.063169 -2.759790 -16.559200 152 121 116
-0.064927 -2.683850 -16.586900 99 58 88
-0.063169 -2.689110 -16.586900 114 57 76
-0.063169 -2.683850 -16.589200 115 58 77
-0.093130 -2.607910 -16.586900 112 59 65
-0.063169 -2.607910 -16.627500 158 120 119
-0.110830 -2.683850 -16.510900 156 119 127
-0.138682 -2.607910 -16.510900 142 103 124
-0.131674 -2.835720 -16.435000 115 64 69
-0.143601 -2.759790 -16.435000 175 142 151
-0.139105 -2.790070 -16.435000 114 66 88
-0.139105 -2.759790 -16.441200 148 109 128
-0.183825 -2.835720 -16.359100 119 87 102
-0.139105 -2.835720 -16.424400 122 58 82
-0.199493 -2.759790 -16.359100 113 57 68
-0.231314 -2.683850 -16.359100 153 119 117
-0.215043 -2.714140 -16.359100 151 119 140
-0.215043 -2.683850 -16.374000 147 122 125
-0.316063 -2.607910 -16.359100 118 77 81
-0.290979 -2.624620 -16.359100 131 105 118
-0.290979 -2.607910 -16.372200 186 145 149
-0.215043 -2.607910 -16.424800 108 58 67
-0.159170 -2.683850 -16.435000 114 59 78
-0.139105 -2.683850 -16.463300 118 65 75
-0.203156 -2.607910 -16.435000 118 87 85
-0.139105 -2.607910 -16.510300 142 103 124
-0.028131 -2.835720 -16.586900 107 62 69
0.012768 -2.835720 -16.640900 171 137 151
-0.043991 -2.759790 -16.586900 142 122 123
0.012768 -2.759790 -16.661700 121 62 82
-0.234751 -2.456040 -16.510900 107 66 62
-0.215043 -2.483030 -16.510900 144 108 108
-0.215043 -2.456040 -16.524200 107 71 71
-0.119180 -2.531980 -16.586900 134 119 122
-0.063169 -2.531980 -16.657000 113 61 84
-0.145475 -2.456040 -16.586900 111 58 76
-0.139105 -2.475970 -16.586900 115 62 80
-0.139105 -2.456040 -16.593600 112 59 77
-0.181648 -2.531980 -16.510900 113 49 73
-0.139105 -2.607010 -16.510900 142 103 124
-0.139105 -2.531980 -16.561600 146 125 124
-0.279611 -2.380100 -16.510900 150 125 85
-0.215043 -2.380100 -16.555200 113 70 79
-0.303553 -2.304170 -16.510900 158 134 96
-0.290979 -2.347080 -16.510900 163 132 88
-0.290979 -2.304170 -16.520900 157 129 89
-0.215043 -2.304170 -16.584800 139 126 84
-0.177414 -2.380100 -16.586900 128 64 78
-0.139105 -2.380100 -16.624000 160 137 131
-0.212860 -2.304170 -16.586900 139 126 84
-0.285364 -2.531980 -16.435000 116 56 66
-0.215043 -2.593420 -16.435000 113 58 81
-0.215043 -2.531980 -16.481000 124 66 90
-0.365995 -2.456040 -16.435000 147 125 75
-0.290979 -2.527550 -16.435000 116 56 66
-0.290979 -2.456040 -16.476800 139 103 113
-0.290979 -2.531980 -16.431700 116 56 66
-0.290979 -2.380100 -16.503400 148 123 83
-0.241285 -2.835720 -16.283100 123 63 73
-0.215043 -2.835720 -16.315000 149 104 107
-0.274792 -2.759790 -16.283100 150 124 135
-0.215043 -2.759790 -16.339900 120 64 75
-0.332838 -2.835720 -16.207200 153 117 117
-0.290979 -2.835720 -16.236900 129 104 125
-0.290979 -2.759790 -16.271700 144 112 117
-0.364719 -2.683850 -16.283100 157 120 128
-0.290979 -2.737220 -16.283100 140 87 103
-0.290979 -2.683850 -16.314900 124 70 84
-0.247931 -2.228230 -16.586900 155 130 99
-0.215043 -2.299370 -16.586900 144 125 83
-0.215043 -2.228230 -16.624500 150 124 97
-0.272790 -2.152290 -16.586900 156 133 91
-0.320013 -2.228230 -16.510900 158 134 90
-0.290979 -2.228230 -16.540800 156 133 91
-0.329367 -2.152290 -16.510900 160 135 94
-0.290979 -2.152290 -16.562300 158 135 91
-0.280518 -2.076350 -16.586900 156 133 92
-0.268742 -2.000420 -16.586900 158 134 96
-0.324845 -2.076350 -16.510900 160 135 95
-0.290979 -2.076350 -16.568900 158 135 94
-0.305085 -2.000420 -16.510900 160 135 94
-0.290979 -2.000420 -16.539700 160 137 96
-0.344014 -2.000420 -16.435000 160 135 95
-0.234830 -1.848540 -16.510900 156 133 92
-0.215043 -1.848540 -16.562500 154 131 87
-0.215043 -1.924480 -16.652500 157 136 91
-0.206742 -1.848540 -16.586900 156 134 93
-0.215043 -1.866230 -16.586900 155 132 88
-0.215043 -1.805990 -16.510900 155 130 90
-0.173780 -1.772610 -16.586900 153 131 92
-0.144929 -1.696670 -16.586900 156 130 95
-0.139105 -1.696670 -16.602100 157 131 96
-0.201402 -1.772610 -16.510900 157 133 95
-0.172538 -1.696670 -16.510900 155 129 94
-0.307942 -1.924480 -16.435000 160 135 94
-0.290979 -1.963960 -16.510900 161 135 98
-0.290979 -1.924480 -16.470300 162 136 101
-0.272905 -1.924480 -16.510900 159 135 97
-0.290979 -1.891790 -16.435000 159 133 96
-0.270156 -1.848540 -16.435000 160 136 92
-0.350465 -1.924480 -16.359100 161 136 96
-0.313241 -1.848540 -16.359100 156 130 93
-0.290979 -1.848540 -16.397400 157 131 94
-0.236992 -1.772610 -16.435000 163 137 100
-0.215043 -1.772610 -16.479600 158 134 96
-0.215043 -1.718330 -16.435000 161 137 101
-0.290979 -1.795210 -16.359100 160 136 100
-0.282016 -1.772610 -16.359100 159 136 95
-0.252965 -1.696670 -16.359100 151 127 91
-0.215043 -1.696670 -16.421100 158 134 98
-0.207021 -1.696670 -16.435000 160 136 100
-0.363962 -1.848540 -16.283100 152 127 87
-0.337416 -1.772610 -16.283100 143 117 80
-0.290979 -1.772610 -16.345200 157 133 95
-0.311857 -1.696670 -16.283100 135 109 76
-0.290979 -1.696670 -16.307200 140 117 76
-0.369176 -1.620730 -16.207200 125 98 69
-0.366916 -1.620730 -16.209000 125 98 69
-0.366916 -1.615780 -16.207200 126 99 70
-0.538294 -1.620730 -16.055300 127 100 70
-0.518790 -1.620730 -16.079600 133 107 74
-0.518790 -1.585040 -16.055300 128 99 69
-0.467245 -1.620730 -16.131200 131 104 74
-0.442853 -1.620730 -16.150600 128 101 72
-0.442853 -1.578510 -16.131200 133 106 76
-0.419631 -1.544800 -16.131200 132 106 73
-0.366916 -1.544800 -16.175200 128 103 73
-0.494155 -1.544800 -16.055300 138 107 78
-0.442853 -1.544800 -16.110700 132 105 75
-0.366916 -1.470310 -16.131200 135 108 78
-0.442853 -1.470800 -16.055300 139 110 80
-0.441398 -1.468860 -16.055300 139 110 80
-0.366916 -1.468860 -16.130300 134 107 77
-0.383608 -1.392920 -16.055300 136 110 75
-0.366916 -1.392920 -16.074900 140 111 81
-0.366916 -1.370800 -16.055300 142 116 79
0.228321 -1.620730 -17.042500 15 20 16
0.240579 -1.620730 -17.062200 20 22 21
0.240579 -1.590890 -17.042500 17 22 18
0.164642 -1.666860 -16.966600 43 39 40
0.180779 -1.620730 -16.966600 46 34 38
0.210631 -1.544800 -16.966600 33 33 31
0.240579 -1.544800 -17.013900 19 21 18
0.240579 -1.472690 -16.966600 36 35 33
-0.063169 -1.696180 -16.738700 134 111 77
-0.083404 -1.620730 -16.662800 143 117 90
-0.063169 -1.620730 -16.694800 142 116 93
-0.063169 -1.581410 -16.662800 144 119 89
0.012768 -1.688010 -16.814700 96 75 54
0.055202 -1.620730 -16.814700 108 90 68
0.088705 -1.620730 -16.846700 107 86 67
0.088705 -1.567510 -16.814700 98 77 56
0.126609 -1.620730 -16.890600 80 63 56
0.164642 -1.620730 -16.942300 56 44 48
0.158079 -1.544800 -16.890600 64 54 45
0.164642 -1.544800 -16.899500 61 51 42
0.101407 -1.544800 -16.814700 89 72 54
0.164642 -1.527850 -16.890600 68 55 46
0.188706 -1.468860 -16.890600 73 59 50
0.240579 -1.468860 -16.964000 36 35 33
0.223855 -1.392920 -16.890600 82 63 57
0.240579 -1.392920 -16.914800 70 52 50
0.132164 -1.468860 -16.814700 95 78 62
0.164642 -1.468860 -16.858600 88 74 65
0.164642 -1.397840 -16.814700 108 91 81
0.167498 -1.392920 -16.814700 110 88 74
-0.027400 -1.620730 -16.738700 127 99 77
0.012768 -1.620730 -16.777100 109 82 53
0.012768 -1.560750 -16.738700 109 89 65
0.025471 -1.544800 -16.738700 107 87 63
0.088705 -1.544800 -16.800300 94 73 54
-0.039008 -1.544800 -16.662800 141 118 86
0.012768 -1.544800 -16.725900 113 93 69
0.074246 -1.468860 -16.738700 87 63 51
0.088705 -1.468860 -16.757400 85 64 45
0.088705 -1.443130 -16.738700 100 79 60
0.012768 -1.478560 -16.662800 125 104 75
0.020387 -1.468860 -16.662800 120 99 72
0.081700 -1.392920 -16.662800 96 71 66
0.088705 -1.392920 -16.678300 112 88 76
0.119744 -1.392920 -16.738700 120 102 82
0.164642 -1.392920 -16.810600 110 88 74
0.240579 -1.362420 -16.890600 73 55 51
0.227815 -1.316990 -16.814700 96 76 67
0.240579 -1.316990 -16.838800 94 74 65
0.240579 -1.303330 -16.814700 95 76 62
0.088705 -1.385980 -16.662800 115 88 67
0.164642 -1.341670 -16.738700 117 97 72
0.192642 -1.316990 -16.738700 112 94 74
0.240579 -1.277740 -16.738700 97 80 60
0.164642 -1.320070 -16.662800 124 104 71
0.168987 -1.316990 -16.662800 123 103 76
0.240579 -1.268430 -16.662800 110 92 70
0.316516 -1.672620 -17.194400 31 31 29
0.344621 -1.620730 -17.194400 28 33 27
0.392453 -1.620730 -17.243700 43 45 42
0.388208 -1.544800 -17.194400 31 35 34
0.392453 -1.544800 -17.198500 31 35 34
0.280231 -1.620730 -17.118400 30 28 29
0.316516 -1.620730 -17.162700 27 32 28
0.316516 -1.547870 -17.118400 29 31 30
0.318141 -1.544800 -17.118400 29 31 30
0.392453 -1.419400 -17.118400 30 28 29
0.411872 -1.392920 -17.118400 29 31 28
0.544326 -1.392920 -17.222700 38 41 34
0.261015 -1.544800 -17.042500 21 23 22
0.316516 -1.544800 -17.116500 29 31 30
0.298749 -1.468860 -17.042500 17 15 16
0.316516 -1.468860 -17.065800 27 27 27
0.362237 -1.468860 -17.118400 23 24 26
0.316516 -1.433750 -17.042500 20 18 19
0.339384 -1.392920 -17.042500 24 29 25
0.392453 -1.392920 -17.101200 34 35 30
0.242364 -1.468860 -16.966600 36 35 33
0.279716 -1.392920 -16.966600 36 31 28
0.316516 -1.392920 -17.015200 21 24 17
0.544326 -1.271110 -17.118400 39 40 44
0.389559 -1.316990 -17.042500 24 24 24
0.392453 -1.316990 -17.045600 24 24 24
0.392453 -1.313350 -17.042500 28 28 30
0.316516 -1.330660 -16.966600 33 34 29
0.326756 -1.316990 -16.966600 35 36 31
0.392453 -1.247520 -16.966600 29 29 31
0.401065 -1.241050 -16.966600 26 27 29
0.544326 -1.241050 -17.088300 45 46 50
0.544326 -1.130430 -16.966600 37 38 42
0.602228 -1.241050 -17.118400 36 36 38
0.696200 -1.241050 -17.168200 36 37 32
0.696200 -1.171810 -17.118400 39 42 35
0.746592 -1.089180 -17.118400 46 46 46
0.848074 -1.089180 -17.180100 31 31 29
0.579336 -1.089180 -16.966600 43 43 51
0.696200 -1.089180 -17.082100 37 38 33
0.274100 -1.316990 -16.890600 65 51 48
0.316516 -1.316990 -16.952800 42 39 34
0.316516 -1.270390 -16.890600 60 51 46
0.349942 -1.241050 -16.890600 53 48 42
0.392453 -1.241050 -16.956400 32 32 34
0.315624 -1.241050 -16.814700 74 59 52
0.316516 -1.241050 -16.817200 74 59 52
0.392453 -1.185060 -16.814700 47 46 41
0.500683 -1.089180 -16.814700 28 28 26
0.544326 -1.089180 -16.915600 33 34 36
0.294477 -1.241050 -16.738700 93 73 62
0.284407 -1.241050 -16.662800 95 74 57
0.316516 -1.240370 -16.814700 74 59 52
0.316516 -1.226150 -16.738700 82 63 56
0.392453 -1.172040 -16.738700 60 53 43
0.316516 -1.219270 -16.662800 90 70 59
0.388774 -1.165110 -16.662800 74 61 53
0.392453 -1.165110 -16.686200 70 57 49
0.392453 -1.161920 -16.662800 74 61 53
0.468818 -1.089180 -16.662800 59 52 46
0.800084 -0.937302 -17.118400 19 19 21
0.848074 -0.937302 -17.146700 23 23 21
0.830690 -0.785428 -17.118400 19 21 20
0.848074 -0.785428 -17.131900 18 19 21
0.649085 -0.937302 -16.966600 34 35 37
0.696200 -0.937302 -17.029800 30 36 32
0.696200 -0.804315 -16.966600 29 35 33
0.702420 -0.785428 -16.966600 27 33 29
0.848074 -0.679581 -17.118400 22 24 21
0.758976 -0.633554 -16.966600 31 31 31
0.848074 -0.633554 -17.104300 27 29 26
0.848074 -0.491114 -16.966600 35 35 33
0.544326 -1.033670 -16.814700 27 23 22
0.544326 -0.993136 -16.662800 50 42 40
0.597945 -0.937302 -16.814700 28 22 32
0.661128 -0.785428 -16.814700 33 31 34
0.696200 -0.785428 -16.951600 27 33 29
0.579301 -0.937302 -16.662800 53 43 41
0.659925 -0.785428 -16.662800 40 35 29
0.696200 -0.694834 -16.814700 37 36 34
0.722472 -0.633554 -16.814700 33 35 32
0.808871 -0.481680 -16.814700 33 33 33
0.848074 -0.481680 -16.952100 35 35 33
0.696200 -0.708782 -16.662800 53 46 38
0.733925 -0.633554 -16.662800 40 39 37
0.812624 -0.481680 -16.662800 35 35 37
-0.139105 -1.680570 -16.586900 156 132 94
-0.115703 -1.620730 -16.586900 147 127 90
-0.074018 -1.544800 -16.586900 145 122 90
-0.063169 -1.544800 -16.614900 144 121 89
-0.140878 -1.620730 -16.510900 155 133 92
-0.139105 -1.620730 -16.516300 155 133 92
-0.139105 -1.617040 -16.510900 155 133 92
-0.099868 -1.544800 -16.510900 154 133 90
-0.063169 -1.529350 -16.586900 142 119 87
-0.063169 -1.491970 -16.510900 148 126 89
-0.219303 -1.620730 -16.359100 151 125 88
-0.215043 -1.620730 -16.365500 152 124 85
-0.215043 -1.612360 -16.359100 152 124 85
-0.172194 -1.620730 -16.435000 157 134 93
-0.139105 -1.557390 -16.435000 152 130 89
-0.132370 -1.544800 -16.435000 151 129 88
-0.177925 -1.544800 -16.359100 150 127 85
-0.139105 -1.544800 -16.422800 151 129 88
-0.089816 -1.468860 -16.435000 149 125 87
-0.063169 -1.468860 -16.477800 148 125 91
-0.063169 -1.431450 -16.435000 146 122 88
-0.139105 -1.469890 -16.359100 151 127 93
-0.138599 -1.468860 -16.359100 151 127 93
-0.094090 -1.392920 -16.359100 146 120 85
-0.063169 -1.392920 -16.396000 144 117 87
-0.012072 -1.468860 -16.586900 135 115 82
0.012768 -1.468860 -16.646200 127 106 79
0.012768 -1.440900 -16.586900 130 109 78
0.057413 -1.392920 -16.586900 106 81 61
-0.044053 -1.468860 -16.510900 144 121 90
0.012768 -1.409860 -16.510900 134 113 84
0.031557 -1.392920 -16.510900 121 100 73
-0.028996 -1.392920 -16.435000 140 114 87
0.012768 -1.392920 -16.483600 131 110 83
-0.063169 -1.358460 -16.359100 144 119 79
0.088705 -1.364970 -16.586900 103 75 64
0.088705 -1.347550 -16.510900 113 87 64
0.150871 -1.316990 -16.586900 118 98 65
0.164642 -1.316990 -16.646800 124 104 71
0.164642 -1.307640 -16.586900 115 95 62
0.240579 -1.260920 -16.586900 110 93 65
0.132586 -1.316990 -16.510900 103 78 58
0.164642 -1.296710 -16.510900 116 92 66
0.240579 -1.248860 -16.510900 110 91 61
0.012768 -1.357880 -16.435000 132 107 77
0.086997 -1.316990 -16.435000 121 97 61
0.088705 -1.316990 -16.436700 121 97 61
0.088705 -1.316210 -16.435000 121 97 61
-0.007650 -1.316990 -16.359100 130 104 67
0.012768 -1.316990 -16.377000 132 106 69
0.012768 -1.305170 -16.359100 127 101 64
0.088705 -1.274290 -16.359100 124 99 58
0.164642 -1.280160 -16.435000 109 85 57
0.223185 -1.241050 -16.435000 111 90 61
0.240579 -1.241050 -16.476500 112 93 63
0.156597 -1.241050 -16.359100 117 90 61
0.164642 -1.241050 -16.366600 117 94 63
0.240579 -1.226490 -16.435000 112 91 64
0.164642 -1.235380 -16.359100 117 94 63
0.240579 -1.176550 -16.359100 117 89 68
-0.290979 -1.639130 -16.283100 134 110 74
-0.282908 -1.620730 -16.283100 134 110 74
-0.243441 -1.544800 -16.283100 136 107 77
-0.215043 -1.544800 -16.312300 143 117 80
-0.290979 -1.620730 -16.275100 132 105 76
-0.327813 -1.544800 -16.207200 129 106 72
-0.290979 -1.544800 -16.239300 125 101 67
-0.215043 -1.498260 -16.283100 138 113 82
-0.290979 -1.486930 -16.207200 134 109 78
-0.278347 -1.468860 -16.207200 130 105 74
-0.215043 -1.468860 -16.264400 134 109 78
-0.225270 -1.392920 -16.207200 137 111 84
-0.215043 -1.392920 -16.216800 132 110 71
-0.197630 -1.468860 -16.283100 139 114 83
-0.139105 -1.468860 -16.358300 151 127 93
-0.155689 -1.392920 -16.283100 136 112 78
-0.139105 -1.392920 -16.302400 143 118 87
-0.365794 -1.468860 -16.131200 134 107 77
-0.290979 -1.468860 -16.196100 131 106 75
-0.306836 -1.392920 -16.131200 132 108 74
-0.290979 -1.392920 -16.146000 130 107 73
-0.215043 -1.379410 -16.207200 135 113 74
-0.139105 -1.367570 -16.283100 133 103 77
-0.093250 -1.316990 -16.283100 138 111 68
-0.063169 -1.316990 -16.309700 141 113 74
-0.063169 -1.293410 -16.283100 137 109 69
-0.164527 -1.316990 -16.207200 133 110 76
-0.139105 -1.316990 -16.235200 135 110 69
-0.139105 -1.290250 -16.207200 130 106 68
-0.086648 -1.241050 -16.207200 133 105 65
-0.063169 -1.241050 -16.225200 131 98 65
-0.063169 -1.222590 -16.207200 126 96 62
-0.290979 -1.372850 -16.131200 134 109 78
-0.243614 -1.316990 -16.131200 138 113 83
-0.215043 -1.316990 -16.157100 138 113 83
-0.215043 -1.280820 -16.131200 138 113 83
-0.324408 -1.316990 -16.055300 141 115 82
-0.290979 -1.316990 -16.089200 140 115 84
-0.290979 -1.268930 -16.055300 140 114 81
-0.274983 -1.241050 -16.055300 142 116 81
-0.215043 -1.241050 -16.109800 136 111 81
-0.187447 -1.241050 -16.131200 135 111 87
-0.139105 -1.241050 -16.167900 130 106 72
-0.241754 -1.165110 -16.055300 136 110 75
-0.215043 -1.165110 -16.078800 132 106 73
-0.215043 -1.098650 -16.055300 134 104 80
-0.139105 -1.166250 -16.131200 120 95 65
-0.138345 -1.165110 -16.131200 120 95 65
-0.063169 -1.165110 -16.169400 126 96 62
-0.068250 -1.089180 -16.131200 169 142 99
-0.063169 -1.089180 -16.133300 169 142 99
-0.139105 -1.165110 -16.130800 120 95 65
-0.211062 -1.089180 -16.055300 135 105 81
-0.139105 -1.089180 -16.100400 117 86 57
0.012768 -1.250340 -16.283100 128 98 62
0.033955 -1.241050 -16.283100 126 96 62
0.088705 -1.241050 -16.312100 122 94 54
0.012768 -1.241050 -16.272200 125 95 59
0.088705 -1.215630 -16.283100 120 90 52
0.012768 -1.172550 -16.207200 146 114 67
0.029899 -1.165110 -16.207200 161 128 85
0.088705 -1.165110 -16.228500 152 120 79
0.088705 -1.141130 -16.207200 171 142 98
0.164642 -1.172510 -16.283100 122 92 66
0.178439 -1.165110 -16.283100 122 92 66
0.240579 -1.165110 -16.340800 117 89 68
0.240579 -1.135530 -16.283100 128 94 67
0.164642 -1.165110 -16.272000 122 92 66
0.164642 -1.116080 -16.207200 174 146 106
0.240579 -1.089330 -16.207200 150 121 81
0.012768 -1.165110 -16.201900 159 127 80
0.012768 -1.089180 -16.159200 185 157 117
0.088705 -1.089180 -16.174000 187 160 117
0.164642 -1.089180 -16.186900 180 152 112
0.240579 -1.089180 -16.207000 150 121 81
0.273016 -1.241050 -16.586900 109 91 69
0.252217 -1.241050 -16.510900 107 90 62
0.316516 -1.210110 -16.586900 97 76 59
0.374450 -1.165110 -16.586900 91 71 64
0.392453 -1.149380 -16.586900 86 72 59
0.316516 -1.191460 -16.510900 108 87 70
0.350132 -1.165110 -16.510900 101 80 63
0.392453 -1.131060 -16.510900 88 75 59
0.442797 -1.089180 -16.510900 84 67 57
0.312787 -1.165110 -16.435000 106 84 61
0.316516 -1.165110 -16.441900 106 84 61
0.316516 -1.162260 -16.435000 107 85 62
0.392453 -1.111530 -16.435000 95 77 63
0.256853 -1.165110 -16.359100 117 90 69
0.316516 -1.131040 -16.359100 104 88 63
0.392453 -1.091430 -16.359100 98 80 60
0.424440 -1.089180 -16.435000 86 72 63
0.396093 -1.089180 -16.359100 95 76 61
0.316516 -1.102320 -16.283100 115 94 67
0.342611 -1.089180 -16.283100 107 87 63
0.392453 -1.089180 -16.351700 95 76 61
0.240961 -1.089180 -16.207200 150 121 81
0.316516 -1.089180 -16.258700 115 94 67
-0.063169 -1.084810 -16.131200 169 142 99
-0.160277 -1.013240 -16.055300 125 92 57
-0.139105 -1.013240 -16.067300 155 125 87
-0.063169 -1.013240 -16.098600 187 164 122
-0.139105 -0.984248 -16.055300 167 139 99
-0.105807 -0.937302 -16.055300 180 156 120
-0.063169 -0.937302 -16.072500 188 163 132
-0.069525 -0.861365 -16.055300 181 155 122
-0.063169 -0.861365 -16.058200 175 149 116
-0.063169 -0.830408 -16.055300 170 144 111
0.012768 -1.037820 -16.131200 186 158 121
0.085249 -1.013240 -16.131200 187 160 117
0.088705 -1.013240 -16.131800 187 160 117
0.088705 -1.012330 -16.131200 187 160 117
0.012768 -1.013240 -16.118300 186 158 121
0.012768 -0.937302 -16.089900 183 158 127
0.088705 -0.937302 -16.101800 178 150 103
0.164642 -1.013240 -16.143300 194 166 126
0.240579 -1.013240 -16.154400 189 162 132
0.164642 -0.990205 -16.131200 190 162 122
0.240579 -0.960754 -16.131200 191 163 123
0.164642 -0.937302 -16.112200 188 159 117
0.240579 -0.937302 -16.124300 189 161 113
0.012768 -0.861365 -16.080900 170 144 107
0.088705 -0.861365 -16.093200 178 150 102
-0.057463 -0.785428 -16.055300 161 136 96
0.012768 -0.785428 -16.081100 178 153 113
0.088705 -0.785428 -16.094900 187 159 109
0.164642 -0.861365 -16.101800 190 163 120
0.240579 -0.861365 -16.113300 185 162 121
0.164642 -0.785428 -16.106000 188 161 116
0.240579 -0.785428 -16.119600 185 160 119
-0.050974 -0.709491 -16.055300 149 120 78
0.012768 -0.709491 -16.081400 156 131 90
0.088705 -0.709491 -16.102000 148 114 76
-0.045054 -0.633554 -16.055300 144 111 78
0.012768 -0.633554 -16.081700 105 67 54
0.088705 -0.633554 -16.111600 131 103 92
0.208420 -0.709491 -16.131200 202 180 139
0.240579 -0.733626 -16.131200 195 170 129
0.240579 -0.709491 -16.139400 201 178 137
0.145206 -0.633554 -16.131200 136 105 87
0.164642 -0.662271 -16.131200 150 116 78
0.164642 -0.633554 -16.138200 140 106 78
0.240579 -0.633554 -16.163100 181 154 99
0.164642 -0.709491 -16.120000 189 165 119
0.079708 -0.481680 -16.131200 166 140 105
0.088705 -0.524200 -16.131200 108 77 59
0.088705 -0.481680 -16.137100 158 134 100
-0.041834 -0.557617 -16.055300 182 157 116
0.012768 -0.557617 -16.086300 144 114 76
0.088705 -0.557617 -16.125300 111 82 68
-0.025872 -0.481680 -16.055300 187 164 122
0.012768 -0.481680 -16.084300 187 164 122
0.101413 -0.557617 -16.131200 120 91 77
0.164642 -0.557617 -16.159200 129 98 80
0.240579 -0.557617 -16.187600 160 128 105
0.164642 -0.481680 -16.176100 117 90 71
0.240579 -0.481680 -16.206100 147 116 95
0.544326 -0.966778 -16.510900 68 57 51
0.468390 -1.064140 -16.510900 80 62 52
0.468390 -1.050810 -16.435000 84 66 56
0.511668 -1.013240 -16.510900 77 59 47
0.501535 -1.013240 -16.435000 82 62 51
0.544326 -0.951880 -16.435000 75 58 48
0.468390 -1.026430 -16.359100 90 72 62
0.479465 -1.013240 -16.359100 93 75 65
0.530579 -0.937302 -16.359100 93 71 57
0.544326 -0.937302 -16.401500 83 65 53
0.544326 -0.912414 -16.359100 104 84 85
0.562815 -0.937302 -16.510900 70 57 51
0.646503 -0.785428 -16.510900 77 65 53
0.552960 -0.937302 -16.435000 78 61 51
0.605958 -0.861365 -16.510900 67 53 50
0.594595 -0.861365 -16.435000 79 66 57
0.620263 -0.836711 -16.510900 67 56 54
0.620263 -0.808300 -16.435000 105 86 79
0.629305 -0.785428 -16.435000 119 98 77
0.571761 -0.861365 -16.359100 116 97 64
0.601306 -0.785428 -16.359100 146 121 81
0.620263 -0.785428 -16.407300 133 112 91
0.696200 -0.676189 -16.510900 91 78 72
0.714751 -0.633554 -16.510900 112 95 65
0.799754 -0.481680 -16.510900 94 85 78
0.682487 -0.709491 -16.510900 91 71 64
0.659700 -0.709491 -16.435000 152 122 84
0.684595 -0.633554 -16.435000 165 136 104
0.696200 -0.633554 -16.462100 148 126 87
0.620263 -0.730585 -16.359100 171 142 100
0.626718 -0.709491 -16.359100 172 142 106
0.645568 -0.633554 -16.359100 178 148 96
0.696200 -0.589896 -16.435000 172 145 102
0.651535 -0.557617 -16.359100 158 124 87
0.696200 -0.557617 -16.421200 177 147 109
0.658414 -0.481680 -16.359100 152 119 76
0.696200 -0.481680 -16.396800 159 125 80
0.751235 -0.557617 -16.510900 115 99 84
0.707064 -0.557617 -16.435000 174 144 106
0.741087 -0.481680 -16.435000 169 145 101
0.772137 -0.524072 -16.510900 107 98 83
0.772137 -0.481680 -16.467900 160 127 92
0.392453 -1.057040 -16.283100 106 85 64
0.316516 -1.053530 -16.207200 159 127 88
0.367270 -1.013240 -16.207200 159 131 92
0.392453 -1.013240 -16.232300 133 113 78
0.392453 -0.980906 -16.207200 160 136 92
0.436901 -1.013240 -16.283100 107 85 71
0.468390 -1.013240 -16.334400 93 75 65
0.468390 -0.967715 -16.283100 107 87 63
0.487271 -0.937302 -16.283100 123 102 81
0.416334 -0.937302 -16.207200 171 137 99
0.468390 -0.937302 -16.262000 143 122 93
0.528905 -0.861365 -16.283100 164 134 96
0.544326 -0.861365 -16.305500 154 128 91
0.544326 -0.820702 -16.283100 166 136 98
0.451592 -0.861365 -16.207200 173 144 112
0.468390 -0.861365 -16.222500 176 147 115
0.468390 -0.786687 -16.207200 171 142 98
0.468487 -0.785428 -16.207200 171 142 98
0.544326 -0.785428 -16.273700 179 147 109
0.316516 -1.013240 -16.174700 182 148 110
0.271045 -0.937302 -16.131200 187 160 115
0.316516 -0.937302 -16.147100 191 168 134
0.392453 -0.937302 -16.188900 178 148 110
0.305226 -0.861365 -16.131200 191 164 119
0.316516 -0.861365 -16.135700 190 165 124
0.392453 -0.861365 -16.170300 186 163 131
0.291841 -0.785428 -16.131200 189 162 119
0.316516 -0.785428 -16.138300 190 165 125
0.392453 -0.785428 -16.166500 174 148 115
0.468390 -0.785428 -16.207100 171 142 98
0.553112 -0.785428 -16.283100 179 147 109
0.458134 -0.709491 -16.207200 169 138 92
0.468390 -0.762843 -16.207200 174 143 99
0.468390 -0.709491 -16.213000 167 134 89
0.544326 -0.709491 -16.263600 169 135 87
0.392640 -0.633554 -16.207200 180 152 102
0.468390 -0.633554 -16.235100 188 159 117
0.544326 -0.633554 -16.269600 166 133 88
0.293780 -0.557617 -16.207200 182 155 138
0.316516 -0.577411 -16.207200 184 154 130
0.316516 -0.557617 -16.215700 185 158 139
0.392453 -0.633411 -16.207200 180 152 102
0.392453 -0.557617 -16.240700 169 134 96
0.242825 -0.481680 -16.207200 147 116 95
0.316516 -0.481680 -16.244400 165 134 106
0.392453 -0.481680 -16.268100 150 113 69
0.499236 -0.481680 -16.283100 180 151 119
0.544326 -0.557551 -16.283100 187 158 116
0.544326 -0.481680 -16.294800 181 153 106
0.468390 -0.557617 -16.260600 165 131 85
0.544326 -0.557617 -16.283100 187 158 116
0.468390 -0.481680 -16.277300 184 154 120
0.316516 -0.709491 -16.159200 190 164 131
0.392453 -0.709491 -16.179800 175 143 104
0.316516 -0.633554 -16.185300 179 154 113
0.392453 -0.633554 -16.207100 180 152 102
0.568753 -0.709491 -16.283100 165 133 82
0.620263 -0.709491 -16.347500 176 146 110
0.569622 -0.633554 -16.283100 164 132 85
0.620263 -0.633554 -16.325800 168 138 86
0.544350 -0.557617 -16.283100 187 158 116
0.620263 -0.557617 -16.328300 163 128 98
0.620263 -0.481680 -16.330600 174 144 108
-1.505970 -2.607910 -16.022100 109 83 56
-1.430030 -2.607910 -16.053600 121 89 64
-1.505970 -2.557880 -15.979400 107 80 61
-1.462480 -2.531980 -15.979400 109 81 60
-1.430030 -2.531980 -15.998100 111 80 59
-1.430030 -2.514390 -15.979400 107 76 55
-1.568660 -2.531980 -15.903400 98 76 55
-1.505970 -2.531980 -15.949900 104 77 58
-1.505970 -2.495070 -15.903400 97 70 53
-1.430030 -2.459210 -15.903400 95 74 55
-1.354100 -2.531980 -16.039900 113 87 64
-1.354100 -2.477750 -15.979400 108 81 64
-1.300110 -2.456040 -15.979400 103 75 61
-1.278160 -2.456040 -15.992000 107 81 64
-1.422630 -2.456040 -15.903400 95 74 55
-1.354100 -2.456040 -15.946400 102 75 56
-1.278160 -2.447410 -15.979400 107 81 64
-1.354100 -2.428600 -15.903400 103 76 59
-1.278160 -2.399020 -15.903400 98 70 56
-1.555410 -2.456040 -15.827500 89 71 51
-1.505970 -2.456040 -15.856300 91 72 58
-1.430030 -2.456040 -15.899200 95 74 55
-1.505970 -2.424810 -15.827500 82 63 49
-1.430030 -2.385280 -15.827500 94 72 58
-1.575290 -2.380100 -15.751600 102 75 58
-1.505970 -2.380100 -15.793900 87 68 53
-1.430030 -2.380100 -15.823700 94 72 59
-1.505970 -2.311010 -15.751600 95 74 57
-1.499740 -2.304170 -15.751600 94 73 54
-1.430030 -2.304170 -15.784500 90 71 54
-1.417750 -2.380100 -15.827500 94 72 58
-1.354100 -2.380100 -15.847300 94 67 56
-1.278160 -2.380100 -15.880700 100 74 61
-1.354100 -2.353930 -15.827500 89 66 58
-1.278160 -2.324260 -15.827500 90 67 51
-1.354100 -2.304170 -15.797200 89 70 63
-1.278160 -2.304170 -15.812600 88 69 52
-1.202220 -2.456040 -16.026600 118 91 61
-1.126290 -2.456040 -16.051800 128 102 65
-1.202220 -2.421000 -15.979400 108 82 55
-1.126290 -2.393910 -15.979400 118 91 62
-1.234340 -2.380100 -15.903400 97 71 54
-1.202220 -2.380100 -15.922900 100 75 53
-1.126290 -2.380100 -15.963200 115 89 62
-1.202220 -2.365480 -15.903400 99 74 52
-1.126290 -2.326220 -15.903400 101 77 53
-1.092690 -2.380100 -15.979400 120 93 64
-1.050350 -2.380100 -15.998700 120 93 64
-0.974411 -2.380100 -16.035900 132 106 73
-1.050350 -2.360280 -15.979400 119 92 63
-0.974411 -2.313210 -15.979400 119 93 66
-1.090200 -2.304170 -15.903400 98 74 48
-1.050350 -2.304170 -15.927200 103 79 51
-0.974411 -2.304170 -15.972300 119 93 66
-1.233140 -2.304170 -15.827500 84 62 48
-1.202220 -2.304170 -15.841800 89 67 53
-1.126290 -2.304170 -15.882400 99 74 54
-1.575830 -2.304170 -15.675600 121 99 75
-1.505970 -2.304170 -15.746600 94 73 54
-0.961939 -2.304170 -15.979400 119 93 66
-0.898474 -2.304170 -16.017100 130 100 74
-1.430030 -2.239410 -15.751600 100 82 62
-1.401890 -2.228230 -15.751600 102 83 66
-1.354100 -2.228230 -15.757100 98 76 63
-1.278160 -2.228230 -15.763900 90 72 62
-1.354100 -2.216910 -15.751600 99 77 63
-1.278160 -2.203000 -15.751600 95 76 62
-1.050350 -2.278580 -15.903400 102 77 55
-0.986330 -2.228230 -15.903400 94 71 57
-0.974411 -2.228230 -15.912000 99 75 65
-0.974411 -2.217440 -15.903400 96 72 62
-1.202220 -2.287230 -15.827500 84 65 50
-1.126290 -2.240260 -15.827500 89 64 59
-1.202220 -2.228230 -15.784500 87 66 63
-1.126290 -2.228230 -15.818600 83 65 45
-1.202220 -2.168500 -15.751600 98 77 58
-1.175810 -2.152290 -15.751600 101 80 61
-1.126290 -2.152290 -15.769300 95 77 57
-1.109390 -2.228230 -15.827500 83 64 47
-1.050350 -2.228230 -15.861500 84 63 42
-1.050350 -2.181190 -15.827500 91 70 53
-1.019490 -2.152290 -15.827500 88 70 50
-0.974411 -2.152290 -15.857600 89 67 53
-1.050350 -2.152290 -15.808500 91 72 57
-1.126290 -2.121710 -15.751600 106 88 66
-0.974411 -2.108260 -15.827500 94 73 56
-1.065320 -2.076350 -15.751600 108 90 70
-1.050350 -2.076350 -15.759200 111 89 75
-0.974411 -2.076350 -15.805500 102 81 60
-1.050350 -2.062210 -15.751600 111 90 73
-0.997161 -2.000420 -15.751600 116 92 68
-0.974411 -2.000420 -15.765300 120 96 70
-0.974411 -1.960650 -15.751600 123 99 71
-1.512870 -2.228230 -15.675600 106 84 61
-1.505970 -2.228230 -15.683800 106 84 61
-1.430030 -2.228230 -15.744600 102 84 64
-1.505970 -2.219050 -15.675600 106 84 61
-1.451100 -2.152290 -15.675600 114 92 68
-1.430030 -2.152290 -15.692000 113 93 69
-1.572310 -2.228230 -15.599700 124 104 71
-1.518560 -2.152290 -15.599700 131 112 80
-1.505970 -2.152290 -15.616400 131 112 80
-1.354100 -2.152290 -15.718400 109 87 64
-1.278160 -2.152290 -15.728500 106 81 59
-1.430030 -2.132480 -15.675600 122 102 77
-1.505970 -2.134280 -15.599700 135 117 81
-1.455830 -2.076350 -15.599700 140 121 89
-1.430030 -2.076350 -15.622900 129 108 77
-1.430030 -2.053840 -15.599700 133 112 81
-1.354100 -2.083870 -15.675600 120 99 70
-1.338190 -2.076350 -15.675600 119 99 66
-1.278160 -2.076350 -15.691300 118 96 72
-1.278160 -2.048440 -15.675600 123 104 71
-1.354100 -2.076350 -15.669700 122 101 70
-1.356850 -2.000420 -15.599700 134 115 82
-1.354100 -2.000420 -15.601600 134 115 82
-1.278160 -2.000420 -15.645300 126 110 76
-1.535360 -2.076350 -15.523800 137 117 82
-1.505970 -2.076350 -15.551800 139 119 84
-1.505970 -2.042240 -15.523800 139 120 88
-1.455900 -2.000420 -15.523800 142 121 94
-1.430030 -2.000420 -15.542800 153 132 103
-1.560740 -2.000420 -15.447800 149 129 94
-1.505970 -2.000420 -15.486100 144 123 92
-1.202220 -2.152290 -15.743700 111 91 66
-1.202220 -2.076350 -15.706900 113 91 70
-1.126290 -2.076350 -15.726500 110 90 66
-1.202220 -2.002620 -15.675600 127 107 82
-1.199340 -2.000420 -15.675600 122 102 77
-1.126290 -2.000420 -15.697400 119 100 70
-1.202220 -2.000420 -15.674700 127 107 82
-1.050350 -2.000420 -15.724300 125 103 79
-1.354100 -1.998470 -15.599700 134 115 82
-1.278160 -1.938210 -15.599700 136 116 79
-1.430030 -1.982340 -15.523800 150 129 100
-1.505970 -1.961770 -15.447800 147 127 90
-1.448600 -1.924480 -15.447800 141 122 90
-1.430030 -1.924480 -15.461300 146 128 92
-1.430030 -1.912030 -15.447800 150 132 96
-1.354100 -1.929090 -15.523800 137 122 81
-1.347790 -1.924480 -15.523800 137 122 81
-1.278160 -1.924480 -15.585600 140 121 81
-1.278160 -1.873990 -15.523800 141 120 89
-1.354100 -1.924480 -15.518200 141 126 85
-1.354100 -1.866020 -15.447800 146 130 97
-1.325230 -1.848540 -15.447800 146 129 99
-1.278160 -1.848540 -15.488000 147 126 95
-1.278160 -1.820710 -15.447800 146 132 97
-1.126290 -1.934390 -15.675600 123 107 73
-1.261850 -1.924480 -15.599700 141 119 80
-1.202220 -1.924480 -15.637500 140 121 89
-1.126290 -1.924480 -15.671700 123 109 72
-1.202220 -1.874780 -15.599700 140 120 85
-1.166760 -1.848540 -15.599700 140 121 89
-1.126290 -1.848540 -15.626100 140 121 88
-1.116150 -1.924480 -15.675600 125 111 74
-1.050350 -1.924480 -15.702600 126 110 77
-0.974411 -1.924480 -15.739800 122 103 70
-1.050350 -1.862060 -15.675600 132 116 83
-1.036750 -1.848540 -15.675600 133 117 83
-0.974411 -1.848540 -15.708700 127 108 78
-1.050350 -1.848540 -15.668300 133 117 83
-1.126290 -1.818520 -15.599700 145 126 94
-0.974411 -1.795240 -15.675600 137 117 82
-1.064220 -1.772610 -15.599700 142 123 90
-1.050350 -1.772610 -15.609700 139 119 92
-0.974411 -1.772610 -15.657400 142 122 95
-1.050350 -1.762690 -15.599700 141 122 89
-0.974411 -1.716650 -15.599700 143 124 91
-1.243920 -1.848540 -15.523800 142 124 84
-1.202220 -1.848540 -15.569200 141 123 87
-1.202220 -1.816970 -15.523800 146 128 90
-1.140790 -1.772610 -15.523800 150 130 95
-1.126290 -1.772610 -15.540300 146 126 91
-1.126290 -1.761730 -15.523800 148 128 93
-1.204410 -1.772610 -15.447800 147 127 90
-1.202220 -1.772610 -15.450400 147 127 90
-1.202220 -1.770990 -15.447800 147 127 90
-1.126290 -1.716020 -15.447800 148 128 91
-1.050350 -1.706230 -15.523800 146 128 92
-1.037080 -1.696670 -15.523800 143 125 89
-0.974411 -1.696670 -15.574400 140 121 88
-1.101570 -1.696670 -15.447800 145 125 88
-1.050350 -1.696670 -15.509300 146 128 92
-0.898474 -2.248810 -15.979400 123 93 69
-0.878823 -2.228230 -15.979400 115 91 65
-0.822537 -2.228230 -16.021500 126 99 69
-0.825501 -2.152290 -15.979400 107 81 58
-0.822537 -2.152290 -15.982000 110 82 60
-0.898474 -2.228230 -15.965300 114 90 64
-0.913760 -2.152290 -15.903400 93 70 56
-0.898474 -2.152290 -15.916200 93 70 54
-0.822537 -2.147670 -15.979400 107 80 61
-0.898474 -2.134040 -15.903400 90 68 54
-0.855187 -2.076350 -15.903400 96 70 53
-0.822537 -2.076350 -15.935000 93 67 52
-0.822537 -2.021430 -15.903400 100 74 57
-0.780419 -2.076350 -15.979400 92 69 55
-0.746601 -2.076350 -16.019700 101 75 58
-0.746601 -2.009210 -15.979400 102 75 54
-0.742620 -2.000420 -15.979400 100 72 58
-0.813033 -2.000420 -15.903400 100 76 64
-0.746601 -2.000420 -15.975000 102 75 54
-0.943846 -2.076350 -15.827500 99 76 60
-0.898474 -2.076350 -15.863900 91 70 53
-0.898474 -2.008730 -15.827500 106 79 58
-0.894329 -2.000420 -15.827500 109 81 67
-0.822537 -2.000420 -15.894100 104 77 60
-0.898474 -2.000420 -15.823600 109 81 67
-0.719070 -1.924480 -15.979400 101 78 60
-0.670664 -1.924480 -16.026100 102 79 61
-0.702852 -1.848540 -15.979400 111 87 61
-0.670664 -1.848540 -16.010000 110 86 58
-0.790928 -1.924480 -15.903400 106 81 61
-0.746601 -1.924480 -15.951100 108 86 63
-0.767155 -1.848540 -15.903400 116 92 66
-0.746601 -1.848540 -15.928800 121 98 66
-0.671399 -1.772610 -15.979400 118 98 65
-0.670664 -1.772610 -15.980200 118 98 65
-0.670664 -1.771380 -15.979400 118 98 65
-0.746601 -1.806980 -15.903400 125 102 71
-0.724315 -1.772610 -15.903400 128 103 73
-0.670664 -1.697470 -15.903400 131 108 77
-0.864525 -1.924480 -15.827500 112 91 64
-0.822537 -1.924480 -15.869100 117 93 69
-0.827358 -1.848540 -15.827500 127 107 80
-0.822537 -1.848540 -15.833000 128 108 81
-0.954393 -1.924480 -15.751600 121 102 69
-0.898474 -1.924480 -15.794200 118 98 73
-0.904705 -1.848540 -15.751600 128 109 79
-0.898474 -1.848540 -15.756600 126 104 80
-0.822537 -1.841060 -15.827500 128 108 81
-0.898474 -1.840760 -15.751600 127 106 77
-0.830376 -1.772610 -15.751600 131 112 80
-0.822537 -1.772610 -15.759700 130 111 78
-0.822537 -1.765710 -15.751600 131 112 80
-0.770039 -1.772610 -15.827500 127 107 74
-0.746601 -1.772610 -15.865900 133 110 76
-0.746601 -1.744470 -15.827500 133 113 78
-0.707976 -1.696670 -15.827500 138 116 79
-0.670664 -1.696670 -15.902400 131 108 77
-0.750277 -1.696670 -15.751600 135 116 83
-0.746601 -1.696670 -15.757500 135 116 83
-0.625021 -1.696670 -15.979400 126 101 70
-0.594727 -1.696670 -16.023700 132 109 68
-0.670139 -1.696670 -15.903400 131 108 77
-0.941558 -1.772610 -15.675600 137 118 86
-0.898474 -1.772610 -15.700100 135 117 81
-0.898474 -1.746010 -15.675600 137 119 81
-0.822565 -1.696670 -15.675600 140 118 81
-0.822537 -1.696670 -15.675600 140 118 81
-0.934786 -1.696670 -15.599700 143 124 91
-0.898474 -1.696670 -15.622000 139 120 87
-1.573020 -1.924480 -15.371900 148 129 89
-1.505970 -1.924480 -15.405200 146 127 87
-1.505970 -1.892530 -15.371900 153 134 94
-1.442350 -1.848540 -15.371900 145 127 91
-1.430030 -1.848540 -15.380200 149 131 95
-1.572310 -1.848540 -15.295900 149 130 90
-1.505970 -1.848540 -15.331200 148 130 90
-1.354100 -1.848540 -15.427100 148 131 101
-1.430030 -1.840590 -15.371900 150 131 98
-1.505970 -1.813220 -15.295900 149 131 93
-1.430030 -1.775540 -15.295900 149 131 95
-1.354100 -1.801600 -15.371900 151 135 99
-1.293970 -1.772610 -15.371900 148 132 96
-1.278160 -1.772610 -15.382200 150 134 98
-1.278160 -1.764660 -15.371900 152 136 100
-1.423620 -1.772610 -15.295900 149 131 95
-1.354100 -1.772610 -15.335900 152 136 100
-1.354100 -1.741770 -15.295900 151 135 99
-1.278160 -1.703760 -15.295900 153 134 101
-1.505970 -1.772610 -15.252900 154 134 97
-1.430030 -1.772610 -15.292400 149 131 95
